ply
format ascii 1.0
element vertex 1680
property float x
property float y
property float z
end_header
0.008217 0.117493 -0.265985
-0.341925 0.298407 -0.242921
-0.005272 0.548611 0.149692
0.112143 0.424249 -0.004766
0.058807 0.018458 -0.022333
0.029361 0.255189 -0.260310
0.098962 0.003302 -0.018148
-0.163647 0.933543 -0.147400
-0.168272 0.031341 -0.228711
-0.424790 0.523300 -0.243647
-0.014740 0.225673 -0.187649
-0.281850 0.629001 -0.254668
-0.515952 0.281264 -0.120148
-0.722992 0.085420 -0.307001
-0.305784 0.686496 -0.426454
-0.228925 0.141157 -0.210040
-0.271877 0.620276 -0.251195
-0.248288 0.461251 -0.233732
-0.244975 0.475037 -0.230291
-0.019386 0.440075 0.131066
-0.441326 0.590674 -0.246955
-0.367916 0.662310 -0.309432
-0.479614 0.556937 -0.191236
-0.222144 0.203882 -0.211629
-0.138141 0.189612 -0.216589
-0.018202 0.153112 -0.202307
-0.264366 0.402955 -0.229043
-0.047955 0.590534 0.153265
-0.324262 0.413728 -0.401048
0.094199 0.097098 -0.110595
0.239453 0.410997 -0.449040
0.231975 0.189114 0.074656
-0.477675 0.531917 -0.252949
-0.254904 0.668899 -0.090174
-0.367726 0.313662 -0.402689
0.263666 0.454590 0.206033
0.279138 0.080135 0.034734
0.223220 0.066292 -0.150828
0.155860 0.079416 -0.176165
-0.275949 0.485247 -0.293596
-0.300048 0.077828 -0.264691
-0.305164 0.331589 -0.332851
0.127340 0.314519 -0.259386
-0.537605 0.329413 -0.266009
0.187923 -0.136665 -0.051258
-0.235802 0.301109 -0.199223
-0.047410 0.103410 -0.228190
-0.437821 0.178951 -0.357827
-0.676905 0.211081 -0.362368
-0.599295 0.675417 -0.187417
-0.370842 0.359421 -0.202467
-0.079598 0.362673 -0.213163
-0.243884 -0.005984 -0.243491
-0.272939 -0.202438 -0.256974
0.377167 0.105361 -0.507667
-0.339198 0.347228 -0.226101
0.465851 0.021134 -0.035232
0.068774 0.535935 -0.055682
0.255001 0.244109 0.003474
-0.572189 0.594224 -0.348686
-0.249075 -0.150954 -0.253672
-0.273139 -0.230209 -0.258133
-0.044427 0.092091 -0.238569
-0.493485 0.454640 -0.209891
0.050483 0.507756 -0.146320
0.163352 0.476291 -0.008934
-0.021427 0.070977 -0.099902
-0.210617 0.695383 -0.130270
0.015506 0.320671 -0.131820
0.397049 0.302232 0.121426
0.220652 0.323527 0.134060
-0.630185 0.078203 -0.244444
-0.048166 0.036846 -0.207447
-0.112074 0.270222 -0.151014
-0.223053 -0.018630 -0.239818
-0.357752 0.352814 -0.236624
-0.268611 0.397587 -0.234744
0.010456 0.143225 -0.261806
-0.355994 0.492828 0.089012
-0.336553 0.670925 -0.275868
-0.370947 0.715846 -0.031236
-0.351981 0.489030 -0.270368
0.416989 -0.007490 -0.097631
-0.359586 0.521813 0.101189
-0.234562 -0.007195 -0.233655
0.305903 0.258042 -0.018167
-0.296899 0.454733 -0.264307
-0.383838 0.237589 -0.239254
-0.494669 0.660724 -0.279687
-0.257473 0.359764 -0.216677
-0.081881 0.074543 -0.218245
-0.082954 0.209456 -0.016778
-0.456991 0.413541 -0.456331
0.265993 0.225136 0.085844
0.204538 0.170749 0.071973
-0.028517 0.444844 -0.219303
-0.240083 0.641893 -0.071950
0.073174 0.123075 -0.095873
0.209031 0.061918 0.307984
-0.236840 0.379930 -0.171714
0.366679 0.292339 0.135161
0.130490 0.080235 -0.187353
-0.143435 0.142498 -0.233324
-0.292744 0.443252 -0.261689
0.035393 0.372250 -0.119211
-0.386264 0.468453 -0.405753
-0.495562 0.343786 -0.270874
-0.618005 0.346389 -0.292000
-0.237086 0.042408 -0.232842
0.196606 0.156919 0.222694
-0.180358 0.700555 -0.484293
-0.565830 0.307732 -0.506233
-0.227302 -0.026424 -0.241207
-0.251357 0.508554 -0.251397
0.105274 0.368206 -0.062006
-0.273139 -0.230209 -0.258133
-0.167533 0.047916 -0.234253
0.068774 0.535935 -0.055682
-0.682301 0.311584 -0.117878
0.479453 0.102126 -0.563812
0.237766 -0.019712 0.045548
0.052049 0.072464 -0.012629
0.272926 0.256547 -0.175540
0.015506 0.320671 -0.131820
0.218237 0.394795 -0.425285
-0.154016 0.038683 -0.221565
-0.480516 0.514594 -0.504470
0.052175 0.514918 -0.144490
0.192884 0.170317 -0.188912
-0.428264 0.058178 -0.290020
-0.345432 0.706045 -0.474924
0.341607 0.064202 -0.449465
-0.142285 0.038371 -0.219193
-0.207933 0.659254 -0.004097
0.152380 0.237733 -0.226736
-0.024825 0.132707 -0.234333
0.228780 0.083172 -0.157140
-0.026695 0.078727 -0.117215
0.139043 0.233609 -0.234777
0.485158 0.105575 -0.092915
0.331718 0.193982 -0.513313
-0.017453 0.158495 -0.202476
0.499457 0.214506 -0.140575
-0.054400 0.043365 -0.207201
0.046243 0.463743 -0.082806
-0.172608 0.242689 -0.229090
0.027747 0.311250 -0.120828
-0.454358 0.528739 -0.196113
0.021044 0.296695 -0.128958
-0.272002 0.404365 -0.132639
0.034077 0.016742 -0.171437
-0.335964 0.585872 -0.494598
0.234597 0.191489 0.073200
-0.231998 0.507494 -0.159260
0.273788 0.393240 0.230204
0.244313 0.334697 0.177884
-0.336156 0.339425 -0.227325
-0.273277 0.766368 -0.277312
0.261014 0.227416 -0.007628
0.208767 -0.086190 -0.039486
0.496401 0.037371 -0.101983
0.084238 0.234141 0.014409
-0.229676 -0.035010 -0.241287
-0.148875 0.048876 -0.221735
-0.286828 0.477905 -0.448249
-0.021991 0.332867 -0.083551
-0.286093 0.177315 -0.309294
0.202431 -0.084808 -0.045896
-0.270847 0.360654 -0.221813
0.054457 0.123990 -0.331521
-0.027708 0.037572 -0.208227
0.082600 0.053504 -0.204173
-0.280626 0.067128 -0.262184
0.333740 0.029735 -0.133183
-0.362092 0.310491 -0.392715
0.089038 0.409962 -0.021580
0.280789 0.271187 0.013269
0.205813 0.162170 0.108927
-0.043810 0.078536 -0.151272
0.342526 0.031694 -0.511660
-0.168114 0.023839 -0.230337
0.404765 0.521143 -0.469420
0.133838 0.151611 0.168109
0.317347 0.089137 0.064276
0.409843 0.199046 0.382360
0.390549 0.026964 -0.062111
0.215327 0.064789 -0.207346
-0.258968 0.160323 -0.265366
0.357293 0.532687 -0.310855
-0.229803 0.343952 -0.231710
-0.481450 0.200656 -0.375999
-0.264446 0.676205 -0.255430
0.000368 0.064232 -0.068120
0.161647 -0.004468 0.004096
-0.051454 0.044734 -0.211039
-0.296285 0.289680 -0.342032
0.091305 0.220877 -0.254720
0.109569 0.350881 0.016285
0.142069 0.123627 -0.172725
0.126404 0.472832 0.060362
0.247471 0.315528 0.158759
0.164385 0.180108 0.411071
0.255212 0.191759 -0.446928
0.038532 0.400880 -0.110088
-0.483719 0.523776 -0.512270
-0.527952 0.695745 -0.160691
0.013133 0.134723 -0.266767
0.425344 0.029809 -0.215951
-0.230134 0.381781 -0.170752
0.141173 0.407605 -0.073015
-0.176160 0.014727 -0.238085
-0.324307 0.335954 -0.221059
0.125945 0.100812 -0.373932
-0.331303 0.469288 -0.400392
-0.122988 0.238437 -0.179805
0.293993 0.078744 -0.176131
0.299924 0.212745 0.062573
0.234510 -0.034186 0.173990
-0.309604 0.318425 -0.225229
-0.686876 0.076937 -0.310862
0.332801 0.015181 -0.519777
-0.222474 0.264278 -0.203462
-0.015973 0.035249 -0.205467
-0.524705 0.196395 -0.386275
-0.231132 0.262878 -0.203104
-0.495739 0.189930 -0.379338
0.023538 0.109469 -0.286471
-0.230444 0.186048 -0.140952
0.432726 0.178158 -0.171665
0.208249 0.159411 0.109512
-0.013060 0.087606 -0.132640
-0.419598 0.495240 -0.229860
0.231234 0.071344 -0.146937
-0.133233 0.676025 -0.160886
-0.272515 -0.164457 -0.255842
-0.411397 0.568150 -0.505703
-0.045406 0.038660 -0.206339
-0.260594 0.273222 -0.217263
0.105728 0.125974 -0.344324
-0.469542 0.684903 -0.351817
-0.642471 0.199606 -0.377311
-0.360950 0.531808 0.101419
-0.241334 0.315383 -0.198037
0.072484 0.050574 -0.210230
0.144154 0.062836 -0.202642
-0.444986 0.519614 -0.195447
-0.480396 -0.000317 -0.292430
-0.225675 0.211065 -0.208249
-0.039289 0.022776 -0.200435
0.200080 0.155917 0.219174
-0.533852 0.357597 -0.277626
-0.357547 0.289534 -0.386273
-0.362140 0.510377 -0.266325
0.114907 0.111001 0.216986
-0.285643 0.805055 -0.279500
-0.256355 0.231294 -0.149600
-0.078550 0.599028 -0.142293
-0.298009 0.296948 -0.230564
0.313244 0.242413 0.261804
-0.141719 0.152159 -0.218799
-0.348389 0.663515 -0.034085
0.039667 0.346700 -0.091639
-0.224802 0.157213 -0.205936
0.188398 0.276246 -0.360247
0.330159 0.052016 -0.099031
-0.585041 0.807043 -0.133740
-0.020214 0.295991 -0.127609
-0.439680 0.384769 -0.218778
-0.103445 0.303699 -0.190698
-0.404467 0.473459 -0.205150
0.431731 0.102468 -0.104334
0.231758 0.150174 -0.253411
-0.157594 0.050146 -0.228135
0.026250 0.073256 -0.040190
-0.282879 0.880608 0.045759
0.462107 0.095718 -0.098252
-0.267291 0.035606 -0.255606
-0.119733 0.245222 -0.203620
0.194691 0.064731 0.296479
0.072604 0.089994 0.233675
0.181265 0.194414 -0.324809
0.068129 0.145907 0.295420
-0.563908 0.479846 -0.202492
0.110853 0.162803 -0.065356
0.548071 0.058924 -0.334885
0.432007 0.099706 -0.106731
0.129350 0.126231 -0.178302
0.309976 0.129904 -0.123909
-0.586465 0.292922 -0.458869
-0.359143 0.374270 -0.417816
0.095752 0.601702 -0.047683
-0.222474 0.264278 -0.203462
0.095044 0.205694 -0.303902
-0.468776 0.375476 -0.219068
-0.240599 -0.044961 -0.234210
-0.295652 0.270412 0.204124
-0.061202 0.296338 0.052316
-0.525328 0.682896 -0.161578
0.209500 0.346725 0.117193
-0.421857 0.496527 -0.202084
-0.454511 0.183477 -0.367218
0.026794 0.051850 -0.059471
0.079741 0.184082 -0.298992
-0.241056 -0.115201 -0.247853
0.077958 0.083255 0.011216
-0.230100 0.197911 -0.210154
0.254280 0.338058 0.159781
0.071755 0.021522 -0.024517
-0.333663 0.842386 -0.547137
0.312238 0.161138 0.301599
-0.283365 0.360317 -0.097574
0.033068 0.368019 -0.116184
-0.087594 0.350077 -0.205003
-0.251199 -0.133751 -0.245213
-0.382042 0.336910 -0.213282
-0.278637 -0.227059 -0.256539
-0.243044 0.340467 -0.127364
-0.236220 0.373700 -0.176329
0.122973 0.220514 -0.310768
-0.237238 0.290512 -0.195793
-0.219593 0.229965 -0.205967
-0.659151 0.088389 -0.219017
-0.229020 0.736251 -0.118069
0.020568 0.017428 -0.180734
0.043927 0.105717 -0.100939
0.027366 0.033564 -0.210343
-0.206068 0.513179 -0.471515
-0.296239 0.585061 -0.503300
0.062411 0.139880 -0.305232
0.591063 0.145817 -0.063965
-0.005844 0.228912 -0.183152
-0.264956 0.594873 -0.252301
-0.367352 0.612003 -0.153740
-0.249097 0.689144 -0.078992
0.025279 0.627284 0.094528
-0.504905 0.651344 -0.161284
-0.339195 0.584480 -0.488867
-0.246411 -0.008964 -0.244119
-0.272751 -0.137869 -0.259042
-0.459919 0.307349 -0.259470
-0.238617 0.062094 -0.235630
-0.233633 0.393561 -0.171355
0.121463 0.182548 -0.052203
0.038270 0.038194 -0.212149
-0.113600 0.351318 0.092890
-0.220538 0.231442 -0.206366
-0.483689 -0.003883 -0.292385
0.181336 0.064934 -0.199641
-0.341029 0.138943 -0.254101
-0.396375 0.275705 -0.233108
0.054545 0.077048 -0.015948
-0.304564 0.461309 -0.268310
-0.250405 -0.100906 -0.237859
0.239587 0.077796 -0.156137
0.162657 0.055822 -0.071312
-0.496389 0.152461 -0.474395
0.393300 0.300142 -0.168573
-0.264098 0.210800 -0.155966
-0.515183 0.168775 -0.517098
0.038388 0.412921 -0.111725
-0.064497 0.083751 -0.228794
0.149871 0.193854 -0.382014
-0.043810 0.078536 -0.151272
-0.209512 0.658795 -0.003307
0.343457 0.257334 0.078247
-0.692523 0.354831 -0.301278
-0.256821 -0.073441 -0.239267
0.168137 -0.091369 -0.065864
-0.113455 0.757805 -0.252898
0.234558 0.377420 0.204791
-0.484887 0.424893 -0.206230
0.484126 -0.001842 -0.085911
0.381472 0.139609 -0.180734
0.099928 0.110227 0.155473
-0.693483 0.514239 -0.294339
0.025209 0.585075 0.082216
0.308703 0.221176 0.067043
-0.594926 0.346661 -0.291501
-0.339198 0.347228 -0.226101
0.191411 0.342811 0.117359
-0.219130 0.601841 -0.428618
-0.079196 0.086150 -0.226973
0.140570 0.204505 -0.295969
0.158375 0.187195 -0.029795
-0.440880 0.392657 -0.223615
0.002893 0.277712 -0.145305
-0.248242 0.074937 -0.231767
-0.124106 0.705140 -0.151037
-0.252461 0.446494 -0.235112
-0.225959 0.207128 -0.209694
0.279703 0.094244 -0.442601
0.272653 -0.103882 -0.173328
-0.313966 0.438781 -0.172653
0.211613 0.181862 -0.189654
0.173691 -0.003323 0.012250
-0.162561 0.052648 -0.230950
0.213572 0.161317 0.069963
-0.365379 0.581019 0.104406
0.254097 0.312180 0.117249
0.128281 0.259644 -0.305884
-0.265945 0.402461 -0.228441
-0.295652 0.270412 0.204124
-0.231857 0.498420 -0.156377
0.041712 0.200012 -0.240143
0.153970 0.135433 0.188498
-0.235119 -0.073387 -0.242078
0.029171 0.248661 -0.259224
-0.086502 0.075655 -0.225265
-0.255136 0.554137 -0.257748
-0.236565 0.695868 -0.032341
-0.225527 0.701015 -0.118652
0.108831 0.197174 -0.141965
0.292868 0.036673 -0.121258
0.172099 0.327572 -0.268927
-0.483623 0.426301 -0.206098
-0.245648 -0.057546 -0.234502
0.397500 0.047933 -0.185131
-0.235162 0.392228 -0.170942
-0.419175 0.505791 -0.236775
-0.247541 0.395342 -0.224553
0.220889 0.353723 0.151374
-0.449808 0.326296 -0.591295
-0.333152 0.401093 0.018444
0.282330 0.297420 -0.176587
0.354584 0.039152 -0.232614
0.061471 0.116575 -0.096532
-0.441915 0.398681 -0.458336
-0.262446 -0.201983 -0.257223
0.228158 0.069045 -0.151075
-0.099007 0.393242 -0.175777
0.204748 0.074942 -0.165971
-0.314323 0.327098 -0.221933
0.144154 0.062836 -0.202642
-0.328871 0.550374 -0.193507
0.230412 0.280276 0.107737
-0.372281 0.322978 -0.408854
-0.191767 0.149080 -0.079525
-0.341555 0.689377 -0.274793
-0.280155 -0.237055 -0.266356
0.143136 0.091218 -0.399495
-0.209780 0.478223 -0.092447
0.147752 0.138839 0.322433
0.043793 0.248526 -0.220725
-0.019037 0.183712 -0.207882
0.067374 0.137780 -0.362352
-0.034636 0.071587 -0.129621
0.186622 0.043627 -0.069674
-0.489417 0.530641 -0.197740
-0.716875 0.359594 -0.289965
-0.345119 0.143618 -0.254624
-0.250273 0.043811 -0.232068
0.142094 0.134141 0.057649
-0.118531 0.065413 -0.230800
-0.247181 0.028473 -0.240745
-0.225851 0.201288 -0.204584
-0.363078 0.326515 -0.395882
0.117029 0.161208 -0.062196
0.132249 -0.204227 -0.126608
-0.233798 0.002959 -0.236366
-0.227690 0.181373 -0.139615
-0.240217 0.690124 -0.033156
0.369099 0.032258 -0.136798
0.269569 0.183383 -0.463115
-0.282592 0.176007 -0.308087
-0.306466 0.339728 -0.332925
-0.017435 0.072431 -0.093800
0.000368 0.064232 -0.068120
0.048389 0.459342 -0.085058
-0.004824 0.565010 -0.157659
0.348380 0.039038 -0.234667
-0.190514 0.470780 -0.184465
0.215747 0.183716 -0.189152
-0.571402 0.500373 -0.426579
-0.239180 -0.072952 -0.234966
0.121865 0.143042 0.040858
-0.294098 0.640614 -0.567431
0.234205 0.190221 0.069753
-0.279668 0.421850 -0.246117
-0.216144 0.615533 -0.242150
-0.516963 0.347435 -0.273045
-0.333663 0.842386 -0.547137
0.397390 -0.056881 -0.053916
-0.462369 0.442283 -0.470966
-0.235404 0.544263 -0.146895
-0.003223 0.492400 -0.034290
-0.241375 0.600690 -0.133796
0.278540 0.449839 -0.344184
0.279017 0.067779 0.384613
0.017226 0.038271 -0.205557
-0.300397 0.278679 -0.061351
-0.312538 0.216573 0.154076
0.174423 0.069644 -0.191468
-0.198383 0.011096 -0.231587
0.165435 0.089023 -0.178233
-0.773746 0.299588 -0.466218
0.330523 0.409632 -0.426787
-0.302677 0.417256 -0.236314
0.130114 0.122253 0.156512
0.344845 -0.019209 -0.541491
0.234739 0.185716 -0.147253
0.303972 0.297748 0.033743
-0.273139 -0.230209 -0.258133
0.155040 0.178619 -0.323946
-0.060492 0.342570 -0.100891
-0.674528 0.471922 -0.268943
-0.460860 0.594741 -0.252313
0.192338 0.077711 -0.163547
-0.587880 0.404498 -0.268794
0.190704 0.127557 0.159626
0.239090 0.383735 0.177056
-0.335964 0.585872 -0.494598
0.202018 0.077667 -0.156302
-0.226321 0.484750 -0.160222
-0.054940 0.073514 -0.162811
0.217754 0.166785 0.240515
0.111816 -0.159875 -0.132858
-0.151866 0.313517 -0.256100
0.027413 0.339832 -0.119417
-0.228007 0.185042 -0.203650
0.239453 0.410997 -0.449040
-0.152426 0.256867 0.008229
-0.283628 0.840218 -0.272804
0.022373 0.133106 -0.273123
0.321211 0.241163 -0.168311
0.184652 0.467792 -0.080527
-0.262736 0.028864 -0.253574
-0.450065 0.352000 -0.231383
-0.424469 0.311977 -0.235456
0.234863 0.197362 0.077779
0.181116 0.050324 -0.068439
-0.205957 0.275390 -0.247462
-0.450542 0.340611 -0.222340
0.248803 0.390790 -0.452255
-0.231277 0.021521 -0.237676
0.413012 0.331877 0.129581
-0.121096 0.038633 -0.216195
0.353379 0.094014 -0.146628
-0.234514 0.032661 -0.234357
-0.241476 0.102862 -0.221700
0.135610 0.163896 0.042961
-0.373529 0.195159 -0.236873
-0.350866 0.464886 -0.190371
-0.271567 -0.127105 -0.249445
0.180737 0.190383 -0.020418
-0.640642 0.223772 -0.274725
-0.502504 0.218617 -0.259868
0.093111 0.163697 -0.325575
-0.209887 0.457126 -0.095104
0.069711 0.174126 -0.297047
-0.340838 0.587481 -0.045286
-0.321505 0.326340 -0.223351
0.147538 0.274665 0.017679
-0.264276 -0.168536 -0.254971
0.025414 0.074478 -0.038903
-0.245662 -0.105093 -0.234167
-0.592219 0.298699 -0.212131
-0.568400 0.200030 -0.393026
-0.276632 0.220206 -0.136876
0.119712 0.155293 -0.320975
-0.230017 0.119550 -0.217158
-0.362380 0.178944 -0.240267
-0.222964 0.252322 -0.204244
0.258361 0.412851 -0.345518
0.111474 0.118003 0.135583
-0.357708 0.145081 -0.256027
-0.285306 0.232505 -0.119203
-0.285895 0.149467 -0.305757
0.105778 0.122281 -0.183098
-0.085079 0.489353 -0.149560
-0.092843 0.048676 -0.211728
-0.257315 0.357569 -0.213621
0.092710 0.231872 -0.250812
-0.089383 0.071962 -0.223859
0.255474 0.224103 0.085428
-0.225406 0.285869 -0.319215
-0.194775 0.257033 -0.205662
0.380501 -0.024856 -0.081592
-0.088843 0.061927 -0.220520
-0.473749 0.490542 -0.497303
0.185119 0.161123 0.067497
-0.200093 0.439144 -0.176511
-0.016834 0.227185 -0.185266
-0.456673 0.407891 -0.457251
0.193619 0.143749 -0.284761
-0.255679 0.455799 -0.250551
-0.493958 0.374641 -0.209032
-0.472187 0.188543 -0.374767
0.202887 0.151843 0.103859
-0.224543 0.528730 -0.199738
0.063438 0.050288 -0.205065
0.267118 -0.045547 -0.065645
0.336256 0.118134 -0.316937
-0.410657 0.426977 -0.177968
-0.461213 0.192815 -0.374299
-0.336553 0.670925 -0.275868
0.236069 0.308203 -0.424704
-0.613220 0.346347 -0.291943
-0.220172 0.193764 -0.207231
-0.140331 0.052979 -0.231106
0.035332 0.433032 -0.036770
-0.435295 0.432361 -0.223690
0.217754 0.166785 0.240515
0.309258 0.087818 0.053782
0.177226 0.220073 -0.130100
-0.341555 0.689377 -0.274793
-0.521460 0.075019 -0.282873
0.082752 0.013555 -0.019741
0.256385 0.181065 0.083498
0.164613 0.093192 -0.068624
0.184118 0.201157 -0.389354
-0.755502 0.394290 -0.312322
-0.419131 0.487752 -0.203482
-0.173565 0.022884 -0.229321
0.251238 0.168819 0.206149
0.116536 0.112033 0.052551
-0.340779 0.627038 -0.471979
-0.001520 0.131338 -0.189826
-0.318399 0.487093 -0.271466
0.193320 -0.005899 0.016295
-0.252252 -0.101298 -0.235397
-0.290229 0.149540 -0.313840
0.365492 0.106770 -0.212583
-0.689892 0.074576 -0.309640
-0.544601 0.263583 -0.404828
-0.009941 0.228836 -0.176642
-0.379231 0.343039 -0.407542
0.016041 0.179388 -0.239825
0.326539 0.040947 -0.496438
-0.109490 0.748915 -0.149196
-0.234128 0.150832 -0.147579
-0.250642 -0.068310 -0.237347
-0.350495 0.144210 -0.257313
-0.301461 0.301515 -0.038010
-0.362246 0.432417 -0.440218
0.090770 0.588492 -0.050929
-0.447722 0.583556 -0.245543
-0.127696 0.055482 -0.220541
-0.182971 0.021423 -0.227147
-0.270145 -0.190806 -0.252465
0.294427 0.112464 -0.313715
0.117980 0.168103 -0.347454
-0.324062 0.296985 -0.241769
0.104067 -0.118175 -0.151217
0.134122 0.123461 0.055245
-0.212927 0.628428 -0.025319
-0.185225 0.476526 -0.188815
-0.259711 0.250003 -0.143197
0.062411 0.139880 -0.305232
-0.076828 0.403411 0.115830
-0.237238 0.290512 -0.195793
0.091232 0.604254 -0.038790
-0.029518 0.165816 -0.227512
-0.550280 0.333096 -0.274082
-0.260646 0.104480 -0.261812
-0.225048 0.150594 -0.204971
-0.231956 0.680395 -0.121931
-0.236537 0.613881 -0.126017
0.151912 0.145763 -0.181872
-0.533852 0.357597 -0.277626
0.029673 0.493709 0.017160
0.061471 0.116575 -0.096532
0.260804 0.225015 0.089574
-0.411381 0.187723 -0.310030
0.151776 0.203121 0.042519
-0.016794 0.197473 -0.204647
0.003341 0.542504 0.122290
-0.358208 0.403700 -0.191277
-0.369513 0.471445 -0.245970
0.153282 0.134594 0.057283
-0.494031 0.438377 -0.461083
-0.137090 0.378970 -0.272670
-0.503778 0.219200 -0.261552
-0.326902 0.519399 -0.068302
-0.239187 0.325496 -0.192390
0.076663 0.031624 0.039064
0.132622 0.396377 -0.072127
0.271123 0.413233 -0.292567
0.067834 0.618014 -0.137831
0.105780 0.148705 -0.074143
-0.233798 0.002959 -0.236366
0.228780 0.083172 -0.157140
0.489103 0.055006 -0.318989
-0.257514 -0.209844 -0.256924
-0.316893 0.351604 -0.013126
-0.226650 0.006600 -0.248129
-0.079097 0.252273 0.012252
-0.199488 0.717165 -0.128272
0.070861 0.406140 -0.039550
-0.243410 -0.099196 -0.240073
0.263867 0.441077 -0.536488
-0.268949 0.773369 -0.274892
0.424116 0.324864 0.105162
-0.218747 0.580410 -0.405115
0.047513 0.141073 -0.294027
-0.221840 0.219165 -0.209715
-0.526081 0.698367 -0.283210
-0.492789 0.209869 -0.377209
0.204769 0.026877 0.005690
-0.242991 0.512922 -0.094484
-0.320641 0.195492 -0.349271
-0.448653 0.314766 -0.257861
-0.071654 0.405587 0.118364
-0.231235 -0.054516 -0.243398
-0.452803 0.636003 -0.230901
0.242798 0.079020 -0.144679
-0.369893 0.728854 -0.418384
-0.268611 0.397587 -0.234744
-0.256673 0.092632 -0.256196
0.189955 0.133122 -0.300212
-0.302951 0.258907 -0.076978
0.338849 0.078550 -0.280282
0.333740 0.029735 -0.133183
-0.705816 0.363152 -0.299652
0.047810 0.474963 -0.075584
-0.296930 0.639777 -0.260137
-0.224251 0.206068 -0.207445
-0.018089 0.075874 -0.087810
0.172764 0.073257 -0.172812
-0.345876 0.799310 -0.280210
-0.005108 0.041364 -0.206832
0.241692 0.185204 0.247397
0.211187 0.513372 -0.078559
0.022369 0.652063 0.099196
0.141468 0.182505 0.047341
0.414865 -0.087759 -0.024374
0.236248 0.298135 0.161977
-0.353008 0.261572 -0.373973
0.263084 0.222180 0.086711
-0.249199 0.430573 -0.117469
-0.242117 0.533085 -0.150016
0.122529 0.111925 0.236497
-0.336941 0.582795 -0.044759
0.104799 0.158259 -0.067709
0.224419 0.167753 0.071396
-0.563908 0.479846 -0.202492
-0.553640 0.219146 -0.256135
0.163317 0.011651 -0.001347
0.165690 -0.046348 -0.043672
0.406037 0.031315 -0.127274
0.403385 0.121688 -0.298393
-0.065860 0.290208 0.045011
-0.236537 0.613881 -0.126017
-0.503778 0.219200 -0.261552
0.010976 0.287987 -0.138575
-0.000874 0.450137 0.123052
-0.315116 0.447631 -0.173480
0.420353 0.321154 0.099957
-0.176160 0.014727 -0.238085
0.410839 0.101639 -0.110858
0.269450 0.289017 -0.106803
-0.259489 -0.205102 -0.256084
0.226479 0.107909 -0.034427
-0.383502 0.381115 -0.408955
0.363804 0.098768 -0.287624
0.043135 0.163713 0.319502
0.129454 0.116195 0.240542
-0.344720 0.606089 -0.041451
-0.297979 0.292991 -0.346322
0.144660 0.181705 0.043380
-0.356574 0.270871 -0.376231
-0.011201 0.407394 -0.179977
-0.201896 0.253908 -0.247974
-0.259614 -0.211353 -0.257409
0.235354 0.373046 0.168488
-0.130034 0.485345 -0.210889
-0.226031 0.405246 -0.167626
-0.179014 0.796386 -0.156295
0.208511 0.473126 0.040026
0.110247 0.690133 -0.016150
-0.071654 0.405587 0.118364
-0.264362 0.667732 -0.257303
0.048974 0.165126 0.302155
-0.509894 0.662387 -0.162128
-0.274336 0.045862 -0.255300
-0.251528 -0.125821 -0.243204
-0.013161 0.486805 0.027980
0.109770 0.152427 -0.068129
-0.631957 0.563943 -0.211420
0.236510 -0.092694 -0.022039
-0.343127 0.364850 -0.182155
0.018805 0.067782 -0.050555
-0.134792 0.295835 0.052550
-0.120090 0.514211 -0.217823
0.234391 0.076550 -0.157726
0.150021 0.189525 0.044944
0.239418 0.247023 0.091589
-0.309940 0.534349 -0.472987
-0.368993 0.706389 -0.031851
0.329404 0.289343 -0.039435
-0.228465 0.727678 -0.019396
-0.004105 0.103201 -0.253677
-0.245117 -0.108858 -0.239497
-0.375490 0.341706 -0.409685
-0.276284 0.059493 -0.262320
-0.018160 0.217446 -0.192751
-0.249912 0.338810 -0.211468
-0.236732 0.316213 -0.191211
0.165809 0.226007 0.121803
0.366849 0.273304 -0.183386
-0.599295 0.675417 -0.187417
-0.537270 0.188249 -0.393344
-0.475907 0.434247 -0.458382
0.000560 0.087732 -0.127541
0.272043 0.200007 0.069807
-0.163138 0.038195 -0.224717
-0.363165 0.498644 -0.273341
0.050114 0.208319 -0.245011
0.230028 0.041659 0.329425
-0.255985 0.033138 -0.254327
-0.288941 0.617598 -0.550456
-0.286745 0.293358 -0.225062
-0.323422 0.366610 0.054948
-0.077914 0.595066 -0.210171
-0.269700 0.307443 -0.227547
0.267562 0.162556 0.236491
0.127572 0.067246 -0.188958
-0.374146 0.290851 -0.250011
-0.275721 -0.159617 -0.259137
-0.367296 0.557127 0.114819
0.381388 0.037663 -0.543021
0.196841 0.287561 -0.400153
0.072790 0.132499 -0.321258
-0.363635 0.275454 -0.380202
-0.602295 0.211226 -0.395055
0.089625 -0.030046 -0.100254
0.142603 -0.034785 -0.034797
-0.301314 0.089565 -0.261463
-0.126065 0.405156 -0.277502
-0.346937 0.714986 -0.273015
-0.340748 0.586294 -0.043020
0.036218 0.369712 -0.125211
-0.000006 0.161411 -0.238310
0.155221 0.125480 0.132199
-0.305366 0.356014 -0.336464
-0.428064 0.163507 -0.380038
-0.324389 0.514147 -0.475867
-0.303987 0.650354 -0.580494
0.259335 0.100067 -0.423244
-0.292994 0.638778 -0.259884
0.184003 0.244271 -0.207385
0.102045 0.426593 0.024775
0.011662 0.103321 -0.220085
-0.605039 0.267652 -0.505426
-0.448691 0.740576 -0.270226
0.309728 0.136696 0.043462
-0.234787 0.009951 -0.240756
0.088820 0.350284 -0.070320
0.099865 0.639941 -0.038547
-0.193044 0.145468 -0.084508
0.024206 0.571923 0.079663
0.046010 0.413704 -0.127745
-0.223622 0.518902 -0.209532
-0.351374 0.481179 -0.456050
-0.271877 0.620276 -0.251195
0.130959 0.259754 0.275629
0.195111 0.331442 0.110606
-0.242645 0.773728 -0.112874
0.091356 0.103166 0.010036
-0.270931 0.291170 -0.218868
-0.422823 0.303243 -0.236678
0.389186 0.125062 -0.310403
-0.336694 0.522469 -0.270191
0.092364 0.105597 0.042643
0.308457 0.119598 0.056538
-0.479614 0.556937 -0.191236
0.222590 0.055273 0.325991
0.106587 0.110739 0.126268
-0.213434 0.541669 -0.195077
-0.364735 0.146469 -0.292338
0.219827 0.243832 0.308568
-0.471041 0.322059 -0.180275
0.065912 0.081489 0.004439
-0.101092 0.054851 -0.225089
-0.375654 0.334682 -0.406487
0.130011 0.072394 -0.186022
-0.562886 0.479201 -0.173713
0.161146 0.126634 0.136670
-0.082504 0.051999 -0.212894
-0.238488 0.462555 -0.435897
-0.348389 0.663515 -0.034085
0.041973 0.166747 -0.173862
0.179159 0.499444 0.010143
-0.030957 0.091204 -0.206686
-0.382539 0.464661 -0.483243
-0.404466 0.297865 -0.251167
0.067361 0.082378 0.003142
0.212037 0.059869 0.314315
-0.372006 0.599109 -0.354565
-0.263988 -0.103421 -0.243615
0.350476 0.124445 -0.490786
0.212602 0.372449 -0.272979
0.021215 0.528643 0.074342
0.333077 0.082929 -0.173167
0.251236 0.103756 -0.413696
0.472420 0.100409 -0.094327
-0.497573 0.457282 -0.455866
0.213302 0.257565 -0.218002
-0.429675 0.314498 -0.236882
-0.392173 0.163934 -0.310456
-0.326981 0.297131 -0.242320
-0.282564 0.300068 -0.223259
0.219329 0.546163 -0.068547
-0.226665 0.150022 -0.207291
-0.337132 0.627775 -0.484900
-0.268363 -0.139029 -0.247121
-0.497619 -0.013640 -0.294185
0.238854 0.090680 -0.222150
-0.204534 0.019687 -0.233196
-0.364265 0.325486 -0.470292
-0.237275 0.016590 -0.238621
0.281173 0.197160 0.083109
0.180527 0.067943 0.287634
-0.403381 0.368201 -0.445261
0.183522 0.149788 0.211165
-0.302069 0.388886 -0.156467
0.392506 0.100770 -0.138134
-0.041312 0.113279 -0.234794
-0.084141 0.500343 -0.141741
-0.552636 0.548000 0.034314
-0.273248 0.327031 -0.170501
-0.379636 0.688719 -0.272518
0.033368 0.149943 -0.269273
-0.186869 0.035248 -0.234322
0.190895 0.056743 -0.246686
-0.369427 0.296913 -0.249925
0.250262 0.349198 0.190290
-0.057970 0.072410 -0.167524
-0.288151 0.201003 -0.320033
-0.139673 0.205737 -0.034363
0.604467 0.096841 -0.056572
0.003489 0.466710 -0.000367
-0.372305 0.198497 -0.239008
-0.283451 0.394666 -0.228365
-0.297091 0.460702 -0.267256
-0.485485 0.595427 -0.179639
0.034335 0.503392 0.022969
-0.124840 0.049712 -0.226044
0.042237 0.034955 -0.035416
-0.370458 0.203058 -0.237993
-0.349794 0.735659 -0.274306
0.224973 0.076746 -0.162956
0.125945 0.100812 -0.373932
-0.263175 0.387827 -0.220704
-0.418255 0.509884 -0.236456
-0.263374 0.404471 -0.131480
0.096766 0.108449 0.159200
0.248992 0.061377 -0.140431
-0.549734 0.551282 -0.202102
-0.124106 0.705140 -0.151037
-0.339788 0.520987 -0.466483
-0.403834 0.238631 -0.229753
-0.265551 -0.233510 -0.255131
-0.403381 0.368201 -0.445261
-0.251033 -0.157806 -0.255125
-0.456572 0.185325 -0.372117
-0.047955 0.590534 0.153265
0.028711 0.088572 -0.106027
-0.355117 0.283739 -0.382732
0.044534 0.031654 -0.210849
-0.353989 0.159961 -0.252084
-0.265095 -0.101150 -0.249403
-0.223354 0.176165 -0.205449
-0.269184 0.316253 -0.221517
-0.267352 0.636565 -0.252567
0.150896 0.183456 -0.032671
0.005522 0.083818 -0.122753
0.162084 0.142980 -0.183421
0.388253 0.181086 0.353157
-0.331926 0.613227 -0.474964
-0.259711 0.250003 -0.143197
0.070212 0.528923 -0.059244
0.133177 0.165250 0.188169
-0.084534 0.073080 -0.206680
-0.481770 0.566961 -0.183601
-0.289499 0.855176 -0.273621
0.439466 0.077892 -0.310135
0.184445 0.299034 0.085038
0.118893 0.113105 0.089249
0.265372 0.178742 0.211022
-0.225617 0.552070 -0.375512
-0.271814 0.380793 -0.228698
0.269191 0.222523 -0.169208
-0.248559 0.080117 -0.235868
-0.188328 0.270894 -0.203996
-0.568389 0.343250 -0.076389
-0.145756 0.136092 -0.232858
-0.271965 0.097132 -0.260998
-0.251885 -0.267719 -0.266837
-0.227332 0.479289 -0.159942
-0.361493 0.381081 -0.213616
0.281523 0.423433 -0.297939
-0.382539 0.464661 -0.483243
0.127373 -0.057948 -0.083472
-0.259675 -0.180209 -0.259196
-0.317506 0.470311 -0.378378
0.012120 0.309731 -0.136695
-0.238382 0.253252 -0.213263
0.209937 0.304100 0.118543
-0.441709 0.384586 -0.433676
-0.259527 0.097043 -0.261254
-0.442116 0.324198 -0.218217
-0.305164 0.331589 -0.332851
-0.216655 0.175754 -0.213488
0.249187 0.197544 0.041691
-0.306750 0.262022 -0.508844
-0.381243 0.590033 0.128057
-0.335800 0.517963 -0.270150
-0.319747 0.577457 -0.486599
0.312189 0.112421 -0.317499
-0.019446 0.341732 -0.076840
0.450661 0.071768 -0.314608
-0.389370 0.568414 -0.265963
-0.311159 0.271626 -0.326119
-0.216121 -0.008267 -0.235365
0.357198 0.275682 0.077620
0.041617 0.105042 -0.105306
0.402954 0.323765 0.130093
-0.537270 0.188249 -0.393344
-0.333615 0.846285 -0.550835
0.100827 0.119801 -0.181114
-0.342662 0.746860 -0.495812
0.270785 0.399485 0.254795
-0.551897 0.579653 -0.231389
-0.009795 0.248462 -0.169720
0.035693 0.102402 -0.192901
0.109267 0.230085 -0.248778
-0.379670 0.155115 -0.307169
-0.266756 0.360108 -0.223580
0.220213 0.145168 -0.156079
-0.049511 0.077506 -0.234966
-0.094485 0.372665 -0.181753
0.287852 0.110686 -0.198731
0.034149 0.504304 0.027022
-0.397890 0.213119 -0.232173
-0.383429 0.424157 -0.199465
-0.467370 0.007175 -0.296423
-0.023663 0.215467 -0.203754
-0.426483 0.540131 -0.247624
-0.244785 -0.082610 -0.231990
-0.001317 0.006803 -0.195044
0.081905 0.015505 -0.024735
0.142586 0.190428 0.065141
0.153546 0.216042 0.049564
0.266075 0.599176 -0.067546
-0.260025 -0.082353 -0.242999
-0.414457 0.298472 -0.237555
-0.232616 0.190306 -0.203752
0.104008 0.029910 -0.222878
0.062600 0.157184 0.293363
-0.235761 0.624983 -0.125314
0.325810 0.287988 -0.036487
0.324485 0.076148 -0.266982
-0.241897 0.520061 -0.093596
-0.655882 0.206821 -0.371787
-0.259527 0.097043 -0.261254
-0.459528 0.414063 -0.455230
0.236069 0.308203 -0.424704
-0.230886 0.494829 -0.159601
-0.116914 0.051476 -0.221601
-0.366939 0.298407 -0.246952
-0.259431 -0.178412 -0.253327
-0.101405 0.323480 -0.190183
-0.403651 0.370371 -0.471772
-0.012763 0.200510 -0.202916
0.217293 0.053711 0.315582
0.323712 0.157762 -0.115248
-0.235999 0.527836 -0.149507
-0.352972 0.154264 -0.250813
0.212827 0.077532 -0.166224
-0.379240 0.596012 0.129221
0.349650 0.004510 -0.105331
0.236125 0.258176 0.096998
0.167075 0.271099 0.061202
-0.624324 0.319025 -0.299522
-0.228701 -0.048914 -0.240847
0.111376 0.122465 0.033090
-0.237462 0.610696 -0.127737
-0.306869 0.323976 -0.226725
-0.254569 0.686348 -0.089692
-0.425918 0.396760 -0.458706
-0.087744 0.062242 -0.216789
-0.202494 0.008765 -0.230509
-0.281175 0.873234 0.045861
0.347086 0.079165 -0.164805
-0.071987 0.610682 -0.205536
-0.320743 0.562881 -0.477058
-0.447141 0.661206 -0.352909
-0.313722 0.542191 -0.448024
-0.113403 0.742430 -0.147783
-0.527281 0.694502 -0.162642
-0.323428 0.472774 -0.267170
0.116996 -0.001406 -0.012173
-0.765410 0.397273 -0.318542
0.095557 0.215092 -0.312731
-0.016805 0.140027 -0.237410
-0.149432 0.075848 -0.233542
-0.158080 0.068020 -0.226499
-0.044465 0.026525 -0.202606
-0.321403 0.332711 -0.226723
0.204632 0.478207 0.043629
-0.175844 0.017943 -0.231119
0.302836 0.350028 -0.570039
-0.462843 0.618624 -0.258171
-0.057934 0.045095 -0.204899
-0.380108 0.331513 -0.411595
0.335735 0.095867 -0.149356
-0.143172 0.642961 -0.225100
-0.322088 0.734358 -0.470116
-0.456673 0.407891 -0.457251
-0.247633 -0.093321 -0.234792
-0.314376 0.355188 0.048884
0.232391 0.046287 0.011149
0.041128 0.331172 -0.094375
-0.274926 0.626227 -0.254949
0.173656 0.073467 0.285682
-0.266214 0.117379 -0.274540
0.031921 0.067948 -0.029694
-0.270341 0.609227 -0.249746
-0.092625 0.478121 -0.144438
-0.361335 0.315706 -0.392324
0.271588 0.179802 0.221233
-0.239271 0.150491 -0.199154
-0.464936 0.475977 -0.559287
0.517699 0.094017 -0.074557
-0.449757 0.024870 -0.299641
-0.257514 -0.209844 -0.256924
0.219163 -0.006178 0.022999
0.355101 0.058596 -0.107697
-0.238319 -0.037347 -0.236247
-0.270433 0.715693 -0.094237
-0.111417 0.354033 0.094079
0.208366 -0.011505 0.029453
0.147538 0.274665 0.017679
0.376826 0.484199 -0.469225
0.346507 0.101333 -0.195441
-0.244236 -0.115428 -0.247756
-0.209541 0.247275 -0.208753
-0.690901 0.263518 -0.440553
-0.206068 0.513179 -0.471515
0.126404 0.472832 0.060362
0.413076 0.319907 -0.160249
0.419399 0.325485 -0.158627
-0.428604 0.296753 -0.219590
-0.267352 0.636565 -0.252567
-0.445161 0.233858 -0.190167
-0.458944 0.444424 -0.136265
-0.358609 0.497399 -0.276228
-0.031810 0.284667 -0.198496
-0.574863 0.220396 -0.256649
-0.261581 0.236941 -0.147619
-0.256410 0.679449 -0.065150
0.347379 0.043945 -0.077406
-0.497573 0.457282 -0.455866
-0.267987 -0.110228 -0.242558
-0.639591 0.079844 -0.229670
0.261059 0.079999 -0.166750
-0.468803 0.184083 -0.376032
0.128879 0.202037 -0.136176
-0.328121 0.064365 -0.271158
-0.621799 0.548728 -0.214717
0.007325 0.535500 0.106529
-0.132454 0.049624 -0.220305
0.083700 0.097388 0.028181
-0.591321 0.359858 -0.461323
-0.265042 0.109639 -0.273188
0.032274 0.428354 -0.032810
-0.018160 0.217446 -0.192751
-0.190437 0.750422 -0.143872
-0.295863 0.357454 -0.386018
-0.345158 0.649781 -0.481940
0.246226 0.157974 0.216704
-0.437462 0.377757 -0.430249
-0.350919 0.623365 -0.198994
-0.231005 0.493866 -0.415023
0.064058 0.402979 -0.042553
0.015788 0.292715 -0.132733
-0.399928 0.366532 -0.475776
-0.100490 0.400848 0.120508
-0.251199 -0.133751 -0.245213
-0.246671 0.797061 -0.106755
-0.495329 0.586428 -0.166217
-0.472347 0.398346 -0.206902
0.347130 0.277434 0.269031
0.492476 0.038586 -0.107760
-0.263374 0.404471 -0.131480
-0.245643 0.233679 -0.134459
0.381388 0.037663 -0.543021
-0.368540 0.502214 -0.273373
-0.345263 0.497737 -0.461407
0.073493 0.404870 -0.034920
0.254162 0.287239 0.169912
-0.228389 0.695974 -0.123645
-0.484774 0.538911 -0.195130
-0.526081 0.698367 -0.283210
-0.653383 0.461260 -0.265618
-0.302677 0.417256 -0.236314
0.211055 0.391887 -0.417425
0.106292 -0.137415 -0.148724
0.056236 0.206037 -0.241686
-0.327733 0.404617 0.080336
0.123253 0.104169 0.223089
-0.163138 0.038195 -0.224717
-0.155080 0.046581 -0.224511
-0.252228 -0.210287 -0.263963
0.130114 0.122253 0.156512
-0.290136 0.369877 -0.389698
-0.016828 0.085684 -0.138577
-0.260776 -0.195292 -0.256553
-0.595106 0.219429 -0.256576
-0.499756 0.636517 -0.166283
0.319823 0.236690 -0.167858
0.445527 0.146669 -0.220195
-0.038724 0.405719 -0.078101
-0.190637 0.458704 -0.182909
0.277815 0.460630 -0.560886
0.008055 0.112679 -0.264046
-0.524343 0.769830 -0.188738
0.056413 -0.040997 -0.063802
0.243060 0.294943 0.108683
0.158314 0.241790 0.054185
-0.462843 0.618624 -0.258171
0.235038 0.038235 0.335189
0.339193 0.044438 -0.236251
0.000557 0.280665 -0.144660
-0.261989 -0.171003 -0.253662
-0.326124 0.391231 0.065942
0.572224 0.141670 -0.076975
-0.314277 0.489356 -0.179619
-0.302020 0.676326 -0.415945
0.292838 0.076443 0.423323
-0.230582 0.498991 -0.421837
0.125140 0.151377 0.041693
-0.303260 0.255621 -0.326454
-0.242924 0.706001 -0.289624
0.397239 0.106629 -0.112463
-0.257362 0.447257 -0.422005
0.111474 0.118003 0.135583
-0.315060 0.428857 -0.236578
-0.327079 0.533358 -0.427275
-0.462227 0.499603 0.033333
-0.181262 0.873011 -0.158101
0.171682 0.142037 0.199987
0.041739 0.370902 -0.074109
0.325810 0.287988 -0.036487
0.253328 0.326346 -0.434180
-0.232680 0.095990 -0.183494
-0.239094 0.011570 -0.236459
-0.310326 0.307991 -0.020727
-0.433386 0.315136 -0.236368
0.042573 0.392592 -0.060791
-0.569766 0.346939 -0.070511
0.206901 0.139480 0.172670
0.402933 0.516644 -0.471430
0.674902 0.105021 -0.021402
0.121607 0.269498 -0.265644
0.232832 0.369094 0.163343
0.260666 0.086509 -0.156325
-0.014053 0.140634 -0.239262
-0.326086 0.204414 -0.354462
0.003527 0.162167 -0.238139
0.232391 0.046287 0.011149
-0.423720 0.395541 -0.491228
-0.243204 0.253486 -0.217245
-0.458795 0.297540 -0.257777
-0.021359 0.507785 0.045174
0.342163 0.436597 -0.445511
-0.016188 0.222851 -0.189046
0.369099 0.032258 -0.136798
-0.407864 0.251787 -0.221364
0.389479 -0.005859 -0.102859
0.267487 -0.005975 0.009695
0.249691 0.583732 -0.065413
-0.559871 0.568920 -0.198888
-0.248961 0.168873 -0.184143
-0.276415 0.788218 -0.284259
0.328110 0.060271 -0.438033
0.255453 0.450993 0.143648
0.589608 0.002175 -0.279528
-0.344277 0.642134 -0.480703
0.009821 0.104930 -0.268551
-0.528796 0.190307 -0.390402
-0.314268 0.421202 -0.170387
-0.237462 0.610696 -0.127737
-0.295652 0.270412 0.204124
0.113527 0.374049 -0.062483
-0.040291 0.123197 -0.239133
0.150021 0.189525 0.044944
-0.506519 0.220433 -0.384540
-0.276857 0.135449 -0.290646
-0.782027 0.394258 -0.268129
0.105039 0.113740 0.046000
-0.458796 0.523316 -0.260609
-0.116839 0.731066 -0.151828
0.129263 0.004880 0.100352
-0.542195 -0.015457 -0.288055
0.056192 -0.000490 -0.142852
0.151935 0.134845 0.180521
0.254961 0.460924 0.143149
0.049542 0.411798 -0.130723
-0.224514 0.127223 -0.157185
0.120960 0.180437 0.216716
0.280782 0.112080 0.049424
-0.426246 0.266432 -0.204108
0.274686 0.017664 -0.544170
-0.432544 0.033602 -0.299748
0.123095 0.396704 -0.054655
-0.383240 0.299450 -0.251381
0.072301 0.540232 -0.057830
-0.282190 -0.207503 -0.267457
-0.231129 0.012976 -0.237422
-0.235445 0.314626 -0.200005
-0.268611 0.397587 -0.234744
-0.357953 0.449518 0.059415
-0.259683 -0.186122 -0.256570
-0.236314 0.033753 -0.235774
0.441460 0.267889 -0.114350
-0.199891 0.195866 -0.217164
-0.339891 0.515714 -0.467606
-0.233860 -0.010350 -0.237493
0.255474 0.224103 0.085428
-0.273949 -0.194105 -0.254695
0.223004 0.314394 0.126697
-0.716875 0.359594 -0.289965
-0.451748 0.448229 -0.535139
-0.120090 0.514211 -0.217823
-0.244014 0.349078 -0.168677
-0.009940 0.135264 -0.249726
-0.319446 0.517138 -0.069754
-0.230430 -0.012581 -0.238191
-0.239044 0.033869 -0.235475
0.253408 -0.095343 -0.173724
0.274028 0.399282 0.256928
-0.521449 0.681236 -0.161115
0.080835 0.113772 -0.183081
-0.472625 0.510756 -0.567477
-0.302080 0.303678 -0.338132
0.291188 0.202558 0.238247
-0.025437 0.077800 -0.141866
0.287153 0.082635 -0.170466
-0.243830 0.069895 -0.229373
0.042288 0.072687 -0.022480
-0.216318 0.213043 -0.210247
-0.480718 0.246966 -0.168053
0.209388 0.335431 -0.460382
-0.300304 0.302461 -0.341168
-0.239410 0.152379 -0.202167
-0.008948 0.075063 -0.067731
0.008358 0.130834 -0.183977
0.084511 0.230964 0.017363
0.008515 0.176249 -0.243812
0.066980 0.117750 -0.094133
0.314567 0.221725 0.065195
0.203909 0.077460 -0.163108
-0.500655 0.523527 -0.568794
-0.256856 -0.062957 -0.247520
-0.241192 0.508804 -0.096927
-0.254721 -0.205960 -0.266177
0.348043 0.259230 -0.169947
-0.020454 0.017558 -0.195168
0.080955 0.138042 0.278063
-0.239198 0.597858 -0.111640
-0.614821 0.448937 -0.087471
-0.425192 0.513046 -0.270166
0.092136 0.198404 -0.301586
0.129956 0.114844 0.108270
-0.260324 0.024756 -0.247749
0.247471 0.315528 0.158759
-0.304350 0.701399 -0.438843
0.154258 0.139324 0.197131
-0.390000 0.199502 -0.239208
-0.401749 0.466589 -0.203729
-0.579502 0.190691 -0.392668
0.105677 0.023370 -0.239853
0.330841 0.258236 0.263291
0.421056 0.106395 -0.105073
-0.286184 0.066865 -0.260024
0.292425 0.158300 0.277286
-0.251410 0.075898 -0.239425
0.173299 0.156945 -0.186658
0.030667 0.256135 -0.260970
-0.078849 0.798017 -0.126266
-0.625356 0.194431 -0.386780
-0.350213 0.657840 -0.030587
0.269429 0.404183 -0.289623
-0.297979 0.292991 -0.346322
0.089625 -0.030046 -0.100254
-0.232426 0.414950 -0.163102
0.213231 0.381733 0.174573
-0.241490 0.545186 -0.149201
-0.447722 0.583556 -0.245543
0.211231 0.161712 0.114832
0.281660 0.424283 -0.299944
-0.237876 0.337083 -0.181508
-0.155409 0.041442 -0.224064
-0.247932 0.344758 -0.209311
0.104505 0.675163 -0.026428
-0.566528 0.299428 -0.428901
0.327721 0.125938 -0.184487
-0.040986 0.322633 0.080415
0.228893 0.385004 -0.485594
-0.575573 0.301343 -0.225759
-0.290455 0.186971 -0.314694
-0.454251 0.359601 -0.228661
-0.233447 0.205236 -0.136495
-0.351671 0.691218 -0.424275
0.072484 0.050574 -0.210230
-0.269586 -0.148928 -0.250971
0.220652 0.323527 0.134060
-0.538179 0.071221 -0.283140
-0.152277 0.090772 -0.232040
-0.278549 0.861076 0.044250
-0.340806 0.066681 -0.280170
-0.496223 0.511955 0.028242
-0.436256 0.173476 -0.351833
-0.552865 0.581223 -0.345317
-0.241223 -0.050670 -0.234409
-0.450863 0.431632 -0.518234
-0.627382 0.225475 -0.269304
-0.459528 0.414063 -0.455230
0.226501 0.304822 0.124115
0.271588 0.179802 0.221233
0.129803 0.196604 -0.039738
-0.007615 0.255350 -0.165642
0.063079 -0.001132 -0.144866
0.090144 0.101972 -0.120850
-0.245370 0.524331 -0.097975
-0.302292 0.248689 -0.096991
-0.756453 0.100193 -0.301251
0.164835 0.185881 0.429513
-0.275630 0.454326 -0.430160
0.159174 0.324432 -0.367003
-0.302577 0.711990 -0.447981
-0.093857 0.778671 -0.128745
0.327099 0.186480 0.058404
0.147752 0.138839 0.322433
0.386216 0.034801 -0.133806
-0.517223 0.402778 -0.204156
0.047895 0.491579 -0.067220
-0.197215 0.557142 -0.152135
-0.359971 0.683833 -0.275684
-0.422823 0.303243 -0.236678
-0.343404 0.763971 -0.508351
0.064343 0.061666 -0.017572
0.422827 0.121389 -0.306666
0.076117 -0.018136 -0.119101
-0.245614 0.012240 -0.241620
-0.561615 0.221864 -0.258846
0.260725 0.097573 -0.209492
0.435920 0.017181 -0.048175
-0.277537 0.325201 -0.224890
0.014941 0.463287 0.122653
0.375425 0.103555 -0.291368
-0.202120 0.264979 -0.246917
-0.348085 0.340611 -0.417771
-0.101618 0.761218 -0.140440
0.404597 0.260019 -0.140825
0.273240 0.448103 -0.346311
-0.302080 0.303678 -0.338132
-0.243538 0.006815 -0.243904
0.197145 0.077564 -0.168206
0.265212 -0.052477 -0.066478
-0.361955 0.521237 0.105086
0.184198 0.059408 -0.235624
-0.342099 0.717998 -0.493922
-0.028638 0.088342 -0.242688
-0.237238 0.290512 -0.195793
-0.020936 0.365097 -0.179848
-0.023663 0.215467 -0.203754
-0.637757 0.566629 -0.214017
-0.259209 -0.148183 -0.244320
-0.426246 0.266432 -0.204108
-0.268663 -0.185052 -0.254891
0.138984 -0.212116 -0.125723
-0.241804 -0.105671 -0.241198
0.243060 0.294943 0.108683
-0.229882 0.251194 -0.214259
0.215180 0.163709 0.115754
-0.250623 0.061485 -0.237260
-0.238126 0.347521 -0.183056
0.242575 0.030626 -0.055902
0.478509 0.157250 -0.226924
-0.007496 0.157869 -0.238697
-0.113600 0.351318 0.092890
-0.284529 0.633486 -0.261455
0.260078 0.247824 0.005052
0.282442 0.197139 0.233252
0.098271 0.031109 -0.220298
-0.241472 0.566450 -0.136150
-0.571431 0.409016 -0.350007
-0.205387 0.188644 -0.216605
0.167969 0.054931 -0.067918
-0.259140 0.187040 -0.171801
-0.225576 0.650329 -0.269574
-0.722992 0.085420 -0.307001
-0.258560 -0.165608 -0.251621
-0.236732 0.316213 -0.191211
-0.337072 0.590538 -0.381955
-0.435157 0.550752 -0.251954
-0.460198 0.287334 -0.183055
-0.281073 -0.194526 -0.267278
-0.332958 0.547942 -0.058528
-0.257289 0.374260 -0.220739
-0.602009 0.340751 -0.294218
0.142282 0.295495 0.011504
0.354634 0.104693 -0.198707
-0.244783 0.014303 -0.237030
-0.312337 0.480270 -0.264306
-0.163065 0.521874 -0.203359
0.190704 0.127557 0.159626
0.020220 0.125021 -0.276120
0.313481 0.214813 -0.400638
0.052967 0.031252 -0.211774
-0.433493 0.305615 -0.251624
0.144332 0.347670 -0.266577
-0.326887 0.753644 -0.478206
0.267159 0.073226 0.019151
-0.450073 0.271636 -0.162075
-0.586166 0.076128 -0.263690
-0.339170 0.580813 -0.041169
0.049043 0.218237 0.003921
-0.273420 0.486960 -0.250381
-0.101405 0.323480 -0.190183
0.159065 0.045511 -0.242044
-0.025985 0.136001 -0.234419
0.571818 0.093368 -0.065150
-0.395386 0.422199 -0.190707
0.042288 0.072687 -0.022480
0.000788 0.391314 -0.035038
-0.266011 -0.255768 -0.253807
-0.377166 0.175794 -0.245288
-0.518575 0.076443 -0.285060
-0.020712 0.370057 -0.179029
0.161146 0.126634 0.136670
-0.065860 0.290208 0.045011
0.046545 0.107640 -0.185511
0.047932 0.116561 -0.306280
0.238932 0.270460 -0.119942
-0.290794 0.305163 -0.225780
-0.470074 0.211397 -0.471494
-0.291701 0.493555 -0.457540
-0.479614 0.556937 -0.191236
0.099040 0.105630 0.056943
0.003527 0.162167 -0.238139
0.064957 0.124662 -0.310277
0.428010 -0.004263 -0.101427
-0.600926 0.446421 -0.241633
0.287361 0.113798 -0.129286
-0.455671 0.353426 -0.229772
0.268740 0.384367 0.217519
-0.309085 0.262250 0.147011
-0.189975 0.447491 -0.214046
0.200287 0.106125 -0.037931
-0.355359 0.494152 0.160496
0.335617 0.060932 -0.111832
-0.199736 0.723053 -0.133176
-0.368775 0.608517 -0.362451
-0.222715 0.007158 -0.241596
0.029449 0.066870 -0.039614
-0.339170 0.580813 -0.041169
0.091305 0.220877 -0.254720
0.152663 0.133879 0.059899
0.291436 0.269194 -0.405533
-0.267971 0.595093 -0.252560
0.041931 0.435321 -0.101254
-0.394918 0.605855 -0.344699
-0.579734 0.505239 -0.426052
-0.349551 0.569019 0.212911
-0.396941 0.052271 -0.293063
0.219741 0.053654 0.319880
-0.283451 0.394666 -0.228365
-0.168272 0.031341 -0.228711
-0.257697 0.197624 -0.158207
0.448133 0.107301 -0.103910
-0.038377 0.419460 -0.229561
0.092364 0.105597 0.042643
0.031097 0.523974 0.061279
0.247848 0.248388 -0.393690
-0.239598 0.573594 -0.141651
0.272917 0.083470 -0.158833
-0.310857 0.332844 -0.327947
-0.358276 0.517459 0.101925
-0.641638 0.348298 -0.296937
-0.259054 0.109191 -0.270023
0.206833 0.077464 -0.166475
-0.687468 0.275221 -0.308428
-0.445640 0.169674 -0.403412
-0.571402 0.500373 -0.426579
-0.235486 0.295289 -0.195671
0.560637 0.136871 -0.079222
-0.595866 0.504840 -0.420126
-0.241371 0.025578 -0.233347
-0.212661 -0.003591 -0.235927
0.123253 0.104169 0.223089
0.135142 0.416373 -0.048231
-0.494031 0.438377 -0.461083
0.327869 0.026274 -0.017212
0.122943 0.120778 0.045635
-0.259054 0.109191 -0.270023
0.087048 0.106773 0.188327
-0.084575 0.626080 -0.137533
-0.202511 0.004703 -0.231510
-0.276163 -0.176621 -0.256242
-0.287944 0.469458 -0.277908
0.130188 0.327145 0.004805
-0.186773 0.693434 -0.484278
-0.074524 0.048791 -0.212587
-0.250300 0.268284 -0.138404
0.162084 0.142980 -0.183421
-0.277600 0.056096 -0.258554
-0.668311 0.465937 -0.266837
0.261953 -0.004605 0.009718
-0.501808 0.475924 -0.206469
-0.320962 0.410312 -0.401709
0.239970 0.410924 -0.505399
-0.253567 -0.222768 -0.269662
0.263084 0.222180 0.086711
-0.101125 0.392086 0.113862
0.210174 0.077088 -0.157308
0.234905 0.026907 -0.061793
-0.038724 0.405719 -0.078101
0.562525 0.092170 -0.062359
0.008217 0.117493 -0.265985
0.179054 0.264350 -0.368057
-0.860342 0.430135 -0.351428
0.073493 0.404870 -0.034920
0.025961 0.096514 -0.107759
-0.281663 0.390405 -0.229857
-0.143060 0.175924 -0.216762
-0.364735 0.146469 -0.292338
0.154791 0.308037 -0.358187
-0.311378 0.651714 -0.265922
0.088332 0.228167 -0.254409
-0.246198 0.106439 -0.218714
-0.346021 0.435221 0.043516
-0.344783 0.363561 -0.185558
0.417120 0.102699 -0.109579
-0.007856 0.255561 -0.169383
-0.013202 0.085310 -0.140002
0.028247 0.610577 0.092192
-0.410460 0.162847 -0.327556
-0.078512 0.404419 0.114353
0.034956 0.047440 -0.208127
0.058384 0.548481 0.044861
-0.302572 0.268647 0.170922
-0.419595 0.532948 -0.245904
0.235038 0.038235 0.335189
0.111376 0.122465 0.033090
-0.220806 0.680269 -0.126082
0.261267 0.386445 0.239517
-0.448718 0.331453 -0.218889
-0.241375 0.600690 -0.133796
-0.213143 0.280467 -0.245295
-0.230716 0.466216 -0.397754
0.261536 0.399807 -0.287630
-0.257985 -0.197039 -0.260424
-0.065480 0.074995 -0.185146
-0.257648 0.363691 -0.219068
0.362852 0.080899 -0.158844
-0.282564 0.300068 -0.223259
0.290478 0.250050 0.095676
-0.148538 0.271054 0.027920
-0.496663 0.442291 -0.458815
-0.333071 0.437729 -0.418542
0.137792 0.073541 -0.085787
-0.338496 0.816813 -0.281441
-0.148688 0.472044 -0.208177
0.170777 0.080773 -0.169052
-0.230259 0.277165 -0.201379
0.308457 0.119598 0.056538
-0.490815 0.588050 -0.174248
-0.040135 0.085794 -0.207976
-0.513120 0.319598 -0.257353
0.026601 0.149356 -0.187053
0.057029 0.069953 -0.008641
-0.236152 0.393574 -0.140205
-0.614306 0.295115 -0.189867
0.197416 0.065964 0.300080
-0.407050 0.469008 0.041663
-0.103866 0.320287 -0.191084
0.391647 0.232741 -0.426351
